194.860224 756.628653 -112.610635
-237.019171 741.404131 44.874793
-89.357564 987.835851 -230.796105
65.506880 746.636830 220.725173
148.719076 1009.890698 -228.156324
-18.025176 751.421643 -2.549057
-219.034281 841.382691 -180.953828
55.063161 840.968934 -204.592977
198.540844 750.667731 92.102240
-86.024926 748.166743 162.862601
-69.415573 786.394494 -190.718542
110.272050 741.776172 -13.587009
-208.431007 969.458506 -202.690927
211.279569 912.590512 -186.526606
-203.339393 755.125496 -64.904279
20.060167 955.927516 -231.867556
13.885980 747.913388 -108.052432
-116.480896 740.606728 12.457064
-128.030200 906.558708 -206.994840
128.265875 790.843257 -174.983326
106.209081 914.122793 -213.768169
209.654947 801.613210 -181.246697
-137.070391 763.839561 -149.068417
-37.456540 897.356664 -219.722754
-9.998756 744.005259 78.514765
102.636781 750.837532 64.338535
-71.050889 745.280426 -58.334844
-36.076823 745.410536 222.679206
72.065491 1012.550196 -236.755646
121.128822 749.683421 176.452176
180.587658 743.877204 -23.543436
-78.885295 744.987451 81.713437
38.717846 739.772037 159.977145
-152.509973 748.873940 166.889164
79.097317 768.446054 -141.611019
20.288656 749.305676 -47.893687
158.112515 937.245019 -209.922662
-47.254495 841.256180 -207.431655
-182.042481 745.593350 42.188472
106.449648 852.597059 -202.887706
-178.406794 753.430779 -18.546071
-219.213757 749.021287 91.716440
137.857081 762.416181 -137.833338
31.653999 763.369386 -153.458452
163.898821 892.237851 -197.043087
-42.448870 738.836314 34.045325
62.650171 886.478377 -210.169739
-190.959907 873.457880 -192.659402
-137.424753 746.968537 124.414117
-19.694393 740.655101 -84.807597
-57.193238 741.527793 132.073740
-99.843279 949.850434 -220.101818
-46.233455 739.792847 96.787712
220.249282 745.399613 195.554685
67.855282 751.918952 -109.559181
98.176270 792.394145 -193.690831
-79.574475 744.887719 199.298674
-181.654576 988.941101 -211.142572
53.053195 983.846639 -239.523616
155.994931 753.347906 -45.716966
-50.970539 777.133041 -163.439421
-108.454069 741.312801 108.578881
128.338834 952.421686 -215.767928
-143.615577 757.664721 -120.618247
-78.679397 741.204032 109.300616
-47.295863 748.744715 -72.165808
-236.110713 773.623313 -136.765377
4.280689 745.080938 11.879036
45.921908 949.197101 -219.508503
-185.047758 836.932861 -184.848778
38.825253 1007.044786 -243.606705
-15.718747 755.955318 -105.545643
-222.902337 748.831233 193.713178
237.725087 745.198803 25.524732
-80.401139 748.710265 -35.824539
156.983020 913.522841 -208.574423
59.505512 817.639788 -208.759247
-54.582778 749.092477 72.185570
75.959480 985.505907 -235.907326
241.883490 752.557746 -58.281803
9.237003 742.846362 65.571706
-146.772746 893.791902 -200.490132
161.016587 740.715283 230.785635
11.075398 975.327482 -238.803688
-118.051874 831.711520 -201.078987
-142.822920 741.199751 231.011241
207.819145 980.864132 -203.636531
158.129320 753.103498 34.544041
26.108442 744.431707 175.477529
178.162555 747.409987 151.213421
2.377642 801.472573 -192.397118
-242.825018 745.081100 -21.506808
131.061725 748.871635 115.886013
-82.751948 758.635713 -117.015034
91.665923 748.300399 -18.916270
-144.108853 745.146527 -64.488445
57.316977 746.441733 106.351330
226.790955 856.653392 -174.878593
-39.696393 953.673831 -222.639960
-187.021443 781.642256 -167.669710
