204.015568 961.584000 -201.914152
-212.205409 753.373700 152.526894
220.806418 748.321468 143.274592
-185.557427 993.458926 -221.004386
6.183912 748.358621 -56.764941
225.775934 754.164509 -70.712676
10.218550 1006.567467 -239.809873
-25.112851 747.526460 213.326495
-91.156121 807.794101 -204.946084
-181.173822 740.616691 -39.786514
105.288293 793.820075 -179.487335
57.193684 742.247818 76.925597
-79.033064 740.524018 84.640480
97.615104 746.529720 224.747445
-196.574652 846.959630 -189.651967
226.790955 856.653392 -174.878593
122.439890 895.435439 -214.040685
110.096134 747.730610 -40.604207
-55.349699 904.128271 -209.653946
22.513215 841.554130 -211.872217
-121.427482 760.137712 -126.049196
-101.417858 745.392605 -2.193801
156.760325 746.881064 89.071957
-40.019767 771.956843 -148.866556
164.929562 760.395674 -121.424304
71.374523 958.086525 -223.707939
-135.626527 743.524610 182.539309
63.784083 739.663862 153.119565
-124.533502 918.554991 -216.951054
91.311653 757.379772 -124.360520
47.488323 746.645578 -3.601209
222.294461 782.625861 -148.657181
-139.038878 752.879142 110.250679
-63.250026 958.692173 -229.589604
171.695911 863.579191 -193.004349
-25.106370 750.113991 -6.308994
-125.211904 752.057354 55.381967
-130.436415 747.667687 -62.041722
181.613523 811.862723 -178.332633
-7.759667 925.485028 -226.965657
-65.806545 748.554857 -40.976769
53.486818 792.049393 -191.570259
155.322866 943.755636 -206.449798
3.449683 737.986111 64.996010
-127.771617 842.285571 -207.856544
-77.958617 751.117554 208.032111
-38.381600 836.118858 -216.685048
73.730715 1005.775244 -240.816185
130.536557 770.790605 -148.935813
60.892126 773.675775 -150.969916
138.874649 836.436115 -200.701715
-35.732434 749.042795 76.230556
-77.492874 778.311919 -160.058212
119.228370 751.682222 -93.470551
-83.352177 845.501857 -206.179153
120.317536 749.082032 77.996663
-57.244844 750.732830 118.863255
-118.702995 741.376092 147.528878
-112.557555 767.760957 -160.793601
-238.780187 769.341625 -129.781293
-237.717546 751.312914 48.293026
240.133300 748.490655 33.325205
75.625973 750.172379 198.818477
-89.013948 896.715016 -212.156559
-24.241863 743.748196 -44.272526
186.586400 752.816985 225.164012
199.614938 757.203655 -81.748528
-69.894807 746.722134 -12.643445
191.462800 843.512281 -188.718733
-129.173432 742.771415 -35.661824
-111.525266 750.430959 32.629742
39.868146 823.280866 -204.295244
149.413756 872.634006 -201.023849
54.802284 740.769344 18.545079
-219.624616 921.745729 -197.528823
178.753683 948.651131 -208.009057
179.871216 746.166198 -9.579063
142.357756 747.127084 164.558970
-196.267829 744.852946 223.588995
-117.186267 1011.498576 -229.759889
-62.302603 740.963879 195.631955
-179.963269 780.558645 -166.036455
147.239352 1007.628917 -232.639889
123.939318 918.232136 -210.809340
-104.706453 757.403892 -139.943129
124.390520 753.036731 -55.171794
-241.384562 757.097233 -61.981203
-0.235812 750.668598 151.394348
-179.881591 745.287541 22.281227
60.537969 897.992507 -214.678606
10.469673 756.324038 -118.375267
-185.868963 755.203278 -99.180820
126.444963 740.436393 17.549911
-197.667681 754.179624 95.501690
-8.968479 788.333889 -196.454803
30.842598 739.538200 235.701435
-47.714052 1012.910037 -245.156452
63.645664 741.224579 -76.097760
213.601509 752.268952 86.810962
-61.750171 748.715788 -101.556111
-234.337343 803.083110 -174.051480
-240.251641 747.454504 -6.197572
-170.798315 895.720367 -193.103841
220.526183 908.201733 -196.446515
87.747236 854.179343 -201.530301
231.374085 750.434729 -19.131047
182.370985 746.998432 42.988750
124.569883 749.371249 97.109727
-172.139073 944.339358 -207.836310
-123.808378 745.719120 231.581904
-59.498390 769.309512 -161.548721
-12.196203 879.234314 -208.900196
-137.245360 796.758399 -192.438907
-61.834101 747.501614 36.002372
-129.941307 964.375558 -225.144419
-18.112105 969.710213 -236.945422
-168.332267 740.201791 147.372231
215.791746 741.423572 188.479067
122.471252 969.390917 -225.584307
23.998297 738.121175 189.318287
143.933221 740.029522 220.012453
18.970818 745.240837 107.677219
13.055493 770.209844 -161.767842
105.715739 750.906657 138.208519
167.534138 741.124792 -52.635165
179.538813 753.633955 127.738334
25.578561 965.085624 -226.215758
-50.324972 801.200728 -190.815065
227.522940 813.943847 -181.154135
92.359886 783.677307 -185.249516
-213.040601 965.032194 -196.762345
-29.618885 816.445674 -213.678441
88.916126 751.202945 47.183521
-162.993693 741.148514 74.107803
12.774301 737.748701 23.552240
-78.015390 749.564044 156.014122
-235.832861 745.543086 108.821478
153.104107 747.004508 105.149056
45.821487 748.997977 -23.637480
-223.786500 741.639698 189.996500
-212.323673 884.778034 -182.363430
-162.318089 771.414263 -128.382733
230.605705 762.524521 -112.180023
182.124687 772.951563 -156.589043
-91.376683 752.679781 -72.758883
-141.488787 746.278886 4.871763
52.889220 755.549981 -112.689115
185.004730 996.687072 -221.362549
89.766153 749.796890 -5.533150
-175.444360 742.844682 186.866993
177.344869 909.414262 -196.596727
-131.880373 880.966289 -199.237311
76.438194 744.077255 111.567269
-24.343051 750.563175 -87.992365
-162.269583 828.100091 -188.450760
-20.179933 739.891895 113.170238
151.199021 788.092950 -184.937269
-23.394434 750.874160 35.253435
177.535035 744.289810 182.775947
-38.979505 746.704499 158.682297
-84.411866 991.534963 -227.668855
110.680753 741.064773 184.106289
21.802113 900.842987 -221.540575
-98.061622 749.315822 115.872402
140.308708 746.338553 -17.475840
-200.806074 774.520457 -131.334783
-90.591587 934.251812 -225.215129
-194.979748 808.922101 -186.716014
89.328689 816.110936 -203.922306
-196.146553 740.529536 58.639973
203.001264 741.464711 -42.959395
-144.583335 749.942499 -98.883282
10.857720 741.326106 -19.639794
88.993915 927.256325 -214.464748
108.964951 1002.401464 -239.106955
142.621686 744.838984 49.835941
-204.609260 747.422015 -9.738534
207.451377 748.945793 16.197386
160.744889 751.910468 -86.017418
40.336177 930.459134 -228.247223
-221.026771 764.205368 -96.144053
52.676712 860.731498 -216.926948
-159.944803 748.972601 230.625498
-152.943010 1008.399988 -219.234552
198.505348 770.410393 -122.203316
-56.800164 869.350476 -213.691420
199.645400 881.882288 -184.751684
74.884451 740.198001 -41.645667
-208.713645 744.077626 -68.834172
-230.265547 847.263174 -180.645483
36.444180 744.163336 49.058749
-21.042911 750.181890 -129.188084
30.704985 751.321881 -81.220415
-169.885014 755.521913 -69.365065
-99.973662 742.105610 183.745716
158.083267 976.709411 -217.990841
-144.852289 777.637196 -160.785387
41.947023 1000.685029 -231.173815
159.133205 747.620826 16.566708
-41.586320 931.540191 -225.523498
